ply
format ascii 1.0
element vertex 1231
property float x
property float y
property float z
property uchar red
property uchar green
property uchar blue
end_header
11.851900 -4.417580 3.896290 31 119 180
11.860900 -4.391000 3.892370 31 119 180
11.883300 -4.314010 3.873800 31 119 180
11.919500 -3.795680 3.555170 31 119 180
11.983900 -3.819610 1.397720 31 119 180
11.975400 -3.781630 1.367540 31 119 180
11.975400 -3.781630 1.367540 31 119 180
11.924500 -3.586110 1.219080 31 119 180
11.918700 -3.566040 1.204500 31 119 180
11.909700 -3.535750 1.182720 31 119 180
11.691300 -2.954600 0.814241 31 119 180
11.675900 -2.920340 0.795272 31 119 180
11.564600 -2.686760 0.673442 31 119 180
11.540400 -2.638970 0.650085 31 119 180
12.108900 -4.168440 0.077055 31 119 180
12.089900 -4.005030 0.026017 31 119 180
12.086700 -3.981290 0.019150 31 119 180
11.941600 -3.279990 -0.127975 31 119 180
11.840400 -2.946320 -0.165400 31 119 180
11.788200 -2.796080 -0.176428 31 119 180
11.663000 -2.476140 -0.189007 31 119 180
12.226800 -3.583120 -0.148197 31 119 180
12.183100 -3.270020 -0.070073 31 119 180
12.183100 -3.270020 -0.070073 31 119 180
12.175800 -3.228920 -0.059039 31 119 180
12.040900 -2.677980 0.104548 31 119 180
12.027900 -2.636590 0.117921 31 119 180
12.019000 -2.609000 0.126907 31 119 180
11.961700 -2.443650 0.182013 31 119 180
11.930600 -2.361130 0.210283 31 119 180
11.919800 -2.333660 0.219795 31 119 180
11.454700 -2.436130 3.288180 31 119 180
11.432300 -2.412290 3.296630 31 119 180
11.340000 -2.317010 3.327100 31 119 180
11.324200 -2.301130 3.331660 31 119 180
11.074500 -2.062830 3.382030 31 119 180
10.479500 -1.561830 3.377150 31 119 180
10.437400 -1.528780 3.371780 31 119 180
10.196900 -1.344800 3.331560 31 119 180
10.117200 -1.285390 3.315000 31 119 180
10.952500 -3.702860 2.360640 31 119 180
10.927600 -3.654300 2.320820 31 119 180
10.907000 -3.615020 2.288900 31 119 180
10.896600 -3.595210 2.272930 31 119 180
10.836400 -3.484510 2.185030 31 119 180
10.813400 -3.443500 2.153060 31 119 180
10.789800 -3.402070 2.121120 31 119 180
10.771700 -3.370750 2.097170 31 119 180
10.765600 -3.360250 2.089190 31 119 180
10.734500 -3.307380 2.049330 31 119 180
10.715300 -3.275350 2.025440 31 119 180
10.702400 -3.253870 2.009530 31 119 180
10.635200 -3.144960 1.930250 31 119 180
10.628300 -3.133920 1.922340 31 119 180
10.614300 -3.111770 1.906540 31 119 180
10.488500 -2.919380 1.773310 31 119 180
10.935800 -3.187050 -0.166183 31 119 180
10.205800 -3.517220 -0.721200 140 86 75
10.112200 -3.258910 -0.843340 140 86 75
10.764600 3.307540 0.647168 140 86 75
10.911200 4.067250 0.609851 140 86 75
10.903400 4.124320 0.584622 140 86 75
10.872900 3.025960 -0.011591 140 86 75
10.952800 3.301810 0.136876 140 86 75
10.536300 1.205680 -2.809010 140 86 75
10.983200 2.577630 -2.978430 140 86 75
10.981800 2.631170 -2.962580 140 86 75
10.804700 3.533620 -2.534860 140 86 75
10.797700 3.550890 -2.523490 140 86 75
10.794100 3.559500 -2.517770 140 86 75
10.764900 3.625870 -2.471110 140 86 75
10.699300 3.755810 -2.374510 140 86 75
10.478700 4.074030 -2.095530 140 86 75
10.466700 4.088110 -2.082060 140 86 75
10.466700 4.088110 -2.082060 140 86 75
10.405000 4.155590 -2.013930 140 86 75
10.398600 4.162380 -2.007100 140 86 75
9.872720 4.561560 -1.530550 140 86 75
9.798270 4.602200 -1.474440 140 86 75
11.087700 -0.608863 -2.084470 140 86 75
11.276000 0.098897 -2.572390 140 86 75
11.090400 1.624160 -3.239480 140 86 75
11.065200 1.694760 -3.257360 140 86 75
11.047700 1.741440 -3.268600 140 86 75
11.024900 1.799880 -3.281860 140 86 75
11.355700 -0.139151 -2.221870 140 86 75
11.379400 0.094223 -2.383680 140 86 75
11.205000 -0.959772 -1.293150 140 86 75
10.539900 2.029940 -2.769700 140 86 75
10.885700 -1.693290 0.205954 140 86 75
10.893800 -1.686300 0.200773 140 86 75
11.017000 -1.575410 0.114514 140 86 75
11.161900 -1.426340 -0.007263 140 86 75
11.181200 -1.404250 -0.025357 140 86 75
11.218300 -1.360600 -0.062184 140 86 75
11.287900 -1.272270 -0.137934 140 86 75
11.315100 -1.235190 -0.170306 140 86 75
11.375900 -1.144920 -0.249749 140 86 75
11.399400 -1.107020 -0.283581 140 86 75
11.482500 -0.952931 -0.422742 140 86 75
11.489900 -0.936985 -0.436924 140 86 75
11.568100 0.263290 -1.497430 140 86 75
9.952390 -2.320100 0.698306 140 86 75
10.888000 -1.742180 0.444560 140 86 75
11.668100 -0.418976 -0.607288 140 86 75
11.669100 -0.402344 -0.621759 140 86 75
11.669600 -0.394018 -0.629005 140 86 75
11.539500 0.354791 -1.273820 140 86 75
11.256700 -1.432120 0.438280 140 86 75
11.685800 -0.514678 0.120908 140 86 75
11.451800 0.435485 -0.651595 140 86 75
11.503700 0.287854 -0.149842 140 86 75
11.479800 0.333382 -0.184569 140 86 75
11.189200 -1.569240 0.289940 140 86 75
11.207200 -1.549730 0.300243 140 86 75
11.225000 -1.529400 0.310331 140 86 75
11.281500 -1.463260 0.343057 140 86 75
11.334000 -1.397150 0.374071 140 86 75
11.344100 -1.383590 0.380031 140 86 75
11.409700 -1.291220 0.419827 140 86 75
11.475700 -1.184400 0.460402 140 86 75
11.570200 -0.992457 0.519747 140 86 75
11.570200 -0.992457 0.519747 140 86 75
11.575600 -0.978842 0.523101 140 86 75
11.575600 -0.978842 0.523101 140 86 75
11.597900 -0.919243 0.537078 140 86 75
11.604800 -0.898794 0.541270 140 86 75
11.607000 -0.891972 0.542619 140 86 75
11.617400 -0.858696 0.549022 140 86 75
11.669800 -0.407855 0.572317 140 86 75
11.627800 -0.147913 0.532770 140 86 75
11.627800 -0.147913 0.532770 140 86 75
11.626000 -0.140875 0.531224 140 86 75
11.620300 -0.119709 0.526433 140 86 75
11.618400 -0.113490 0.524764 140 86 75
11.548500 0.081226 0.468361 140 86 75
11.548500 0.081226 0.468361 140 86 75
11.548500 0.081226 0.468361 140 86 75
10.675200 -2.106300 -0.394198 140 86 75
10.703000 -2.084410 -0.379868 140 86 75
11.477000 -1.240040 0.166565 140 86 75
11.480900 -1.232950 0.170474 140 86 75
10.184200 -2.842150 -1.985450 140 86 75
10.701000 -2.410880 -1.786230 140 86 75
10.818800 -2.295770 -1.723740 140 86 75
10.836100 -2.278640 -1.713720 140 86 75
11.081600 -2.005680 -1.550170 140 86 75
10.214100 1.301550 0.351719 140 86 75
9.179070 -4.960740 -1.310510 140 86 75
9.225080 -4.944580 -1.343190 140 86 75
9.292820 -4.919250 -1.392300 140 86 75
9.326230 -4.905970 -1.416850 140 86 75
9.337270 -4.901480 -1.425050 140 86 75
9.347920 -4.897590 -1.433370 140 86 75
9.358870 -4.893080 -1.441570 140 86 75
9.369770 -4.888520 -1.449770 140 86 75
9.369770 -4.888520 -1.449770 140 86 75
9.412580 -4.870680 -1.482740 140 86 75
9.475580 -4.842910 -1.532200 140 86 75
9.526750 -4.819220 -1.573490 140 86 75
9.536910 -4.814300 -1.581730 140 86 75
9.547040 -4.809330 -1.589960 140 86 75
9.557110 -4.804350 -1.598200 140 86 75
10.550900 -3.898450 -2.690010 140 86 75
10.684500 -3.601230 -2.915980 140 86 75
10.740100 -3.424330 -3.026920 140 86 75
10.742600 -3.415160 -3.032150 140 86 75
10.742600 -3.415160 -3.032150 140 86 75
9.227150 0.705405 -2.666250 140 86 75
9.990800 -4.684970 -1.435650 140 86 75
10.007500 -4.673650 -1.452060 140 86 75
10.983600 -2.907820 -1.028390 140 86 75
10.428300 -4.770450 0.530154 140 86 75
10.519100 -4.766500 0.465323 140 86 75
10.541900 -4.742380 0.471397 140 86 75
10.552800 -4.730990 0.474326 140 86 75
10.579900 -4.701110 0.481178 140 86 75
10.899800 -4.155130 0.454435 140 86 75
10.940700 -3.973430 0.470258 140 86 75
10.926400 -3.995650 0.336783 140 86 75
10.839300 -3.444700 0.039393 140 86 75
10.515000 -4.915290 -1.292390 140 86 75
10.752100 -4.388890 -0.890186 140 86 75
10.757100 -4.370810 -0.877294 140 86 75
10.761700 -4.353460 -0.864307 140 86 75
10.593800 -2.875790 -0.037512 140 86 75
10.390800 -2.476470 0.093312 140 86 75
10.714100 -3.607300 -0.786038 140 86 75
10.709800 -3.577200 -0.766959 140 86 75
9.869670 -5.608890 -2.584970 140 86 75
10.563500 -4.335320 -1.712510 140 86 75
9.514790 -5.673900 -3.539730 140 86 75
9.594620 -5.400160 -3.535640 140 86 75
9.596990 -5.390540 -3.534940 140 86 75
9.670640 -4.981160 -3.475100 140 86 75
9.526940 -4.610400 -2.215800 140 86 75
9.501470 -4.538040 -2.242140 140 86 75
9.447090 -4.378580 -1.848840 140 86 75
9.587240 -4.863070 -1.181200 140 86 75
9.046400 -5.132330 0.164358 140 86 75
9.042580 -5.119360 0.166716 140 86 75
9.020540 -5.037970 0.180110 140 86 75
8.518760 -3.764910 0.284191 140 86 75
9.987130 5.131850 -2.228860 140 86 75
9.976230 1.904590 -1.845160 140 86 75
10.301100 2.910090 -2.196470 140 86 75
10.303200 2.922750 -2.200170 140 86 75
9.945610 5.114830 -2.386980 140 86 75
10.466400 4.306820 -1.720670 140 86 75
10.826500 3.704190 0.237051 140 86 75
10.783000 3.789220 0.324602 140 86 75
10.770100 3.812450 0.348192 140 86 75
10.690300 3.938850 0.480215 140 86 75
10.685200 3.946250 0.487845 140 86 75
11.236800 1.229740 1.571900 140 86 75
11.237200 1.238280 1.574910 140 86 75
11.237400 1.429580 1.636180 140 86 75
11.228000 1.543600 1.665840 140 86 75
11.227100 1.551840 1.667730 140 86 75
11.226100 1.560070 1.669600 140 86 75
11.225100 1.568290 1.671430 140 86 75
11.220700 1.600370 1.678470 140 86 75
11.217100 1.624170 1.683430 140 86 75
11.214400 1.640470 1.686580 140 86 75
11.243700 0.610592 -1.859910 140 86 75
11.327900 -0.766277 1.359550 140 86 75
11.249000 -0.965720 -1.896300 140 86 75
11.249800 -0.956364 -1.891760 140 86 75
11.200900 -1.093270 -2.089630 140 86 75
11.120900 -0.399524 -1.889440 140 86 75
11.213600 -1.440930 -1.842780 140 86 75
11.214400 -1.432180 -1.845080 140 86 75
11.234700 -0.935353 -1.499950 140 86 75
11.230400 -0.917852 -1.506100 140 86 75
11.223200 -1.113510 0.842149 140 86 75
10.040600 -3.728550 1.454920 140 86 75
11.008900 -2.491240 1.790510 140 86 75
11.008900 -2.491240 1.790510 140 86 75
10.311100 0.257003 0.810772 140 86 75
10.068700 0.494204 0.685769 140 86 75
11.092700 -1.902230 1.948260 140 86 75
11.138400 -2.513970 -0.306905 140 86 75
11.127800 -2.127540 0.033849 140 86 75
11.005900 -1.846910 -0.476175 140 86 75
10.161500 -4.379090 -0.285247 140 86 75
10.305900 -4.255660 -0.385755 140 86 75
9.537220 -5.424280 1.355450 140 86 75
10.404200 -4.433020 -1.204010 140 86 75
10.405900 -4.408180 -1.214340 140 86 75
10.297700 -3.585070 -1.415250 140 86 75
10.134300 -3.150590 -1.425920 140 86 75
10.086800 -3.047790 -1.420390 140 86 75
10.040700 -2.953390 -1.412890 140 86 75
10.013700 -2.900660 -1.407740 140 86 75
9.944570 -2.772170 -1.392430 140 86 75
9.938390 -2.761870 -1.390990 140 86 75
9.938390 -2.761870 -1.390990 140 86 75
10.254800 -4.044610 0.834350 140 86 75
10.253200 -4.021810 0.823205 140 86 75
10.251700 -3.998360 0.812177 140 86 75
10.248700 -3.963740 0.795505 140 86 75
10.246700 -3.940220 0.784469 140 86 75
10.240500 -3.881890 0.756749 140 86 75
10.239100 -3.870080 0.751231 140 86 75
10.237700 -3.858260 0.745712 140 86 75
10.236300 -3.846440 0.740195 140 86 75
10.234800 -3.834600 0.734679 140 86 75
10.229700 -3.799670 0.718013 140 86 75
10.229700 -3.799670 0.718013 140 86 75
10.228000 -3.787800 0.712502 140 86 75
10.220500 -3.740900 0.690352 140 86 75
10.212100 -3.693870 0.668239 140 86 75
10.212100 -3.693870 0.668239 140 86 75
10.210000 -3.681950 0.662748 140 86 75
10.207800 -3.670020 0.657262 140 86 75
10.207800 -3.670020 0.657262 140 86 75
10.205500 -3.658080 0.651779 140 86 75
10.164700 -3.480000 0.569654 140 86 75
10.161600 -3.467950 0.564244 140 86 75
10.148500 -3.420320 0.542543 140 86 75
10.100400 -3.264030 0.472953 140 86 75
10.100400 -3.264030 0.472953 140 86 75
10.096400 -3.251870 0.467674 140 86 75
10.083800 -3.215970 0.451771 140 86 75
10.061800 -3.155580 0.425532 140 86 75
10.057300 -3.143370 0.420338 140 86 75
10.048100 -3.118930 0.409981 140 86 75
9.493130 -2.369470 0.836536 140 86 75
8.755880 -1.389210 0.509749 140 86 75
9.826210 -4.735520 2.111220 140 86 75
9.826640 -4.724020 2.109250 140 86 75
9.826640 -4.724020 2.109250 140 86 75
9.829420 -4.663630 2.099160 140 86 75
9.832190 -4.553130 2.079380 140 86 75
9.832440 -4.528220 2.074710 140 86 75
9.832230 -4.503850 2.069890 140 86 75
9.832170 -4.478790 2.065020 140 86 75
9.832170 -4.478790 2.065020 140 86 75
10.068500 5.221800 1.424960 140 86 75
9.938470 4.444370 1.746730 140 86 75
9.036890 2.161040 2.248420 140 86 75
10.044600 3.574110 1.955190 140 86 75
10.063900 3.610650 1.941940 140 86 75
10.507000 4.881770 1.317890 140 86 75
10.508500 4.892690 1.311490 140 86 75
10.599400 5.108790 1.118000 140 86 75
10.508200 5.832770 0.630741 140 86 75
10.460700 4.047810 1.682680 140 86 75
10.507700 4.182220 1.612520 140 86 75
10.518400 4.215880 1.594670 140 86 75
10.528900 4.248830 1.576560 140 86 75
10.539000 4.281710 1.558300 140 86 75
10.539000 4.281710 1.558300 140 86 75
10.542200 4.292850 1.552240 140 86 75
10.545400 4.303970 1.546150 140 86 75
10.615700 4.597070 1.376550 140 86 75
10.617700 4.607880 1.370140 140 86 75
10.623300 4.640230 1.350860 140 86 75
10.655500 4.892160 1.193480 140 86 75
10.662000 5.005420 1.120390 140 86 75
10.662300 5.015750 1.113740 140 86 75
10.663300 5.107500 1.053730 140 86 75
10.654700 5.296400 0.926708 140 86 75
10.650800 5.336040 0.900138 140 86 75
10.650000 5.345290 0.893381 140 86 75
10.648800 5.355140 0.886745 140 86 75
10.641500 5.413340 0.846894 140 86 75
10.641500 5.413340 0.846894 140 86 75
10.637100 5.442560 0.827083 140 86 75
10.635800 5.451640 0.820369 140 86 75
10.614700 5.565650 0.741420 140 86 75
10.610500 5.584620 0.728374 140 86 75
10.587800 5.677330 0.663435 140 86 75
10.577700 5.713800 0.637654 140 86 75
10.566600 5.750630 0.612151 140 86 75
10.533500 5.849230 0.542613 140 86 75
10.509900 5.911000 0.499108 140 86 75
10.700500 5.334440 0.828176 140 86 75
10.657100 5.549380 0.677024 140 86 75
10.652300 5.567880 0.664103 140 86 75
10.885100 4.967820 0.857528 140 86 75
10.503900 5.928790 0.157415 140 86 75
10.498300 5.936280 0.152192 140 86 75
10.487100 5.951180 0.141778 140 86 75
11.061100 4.509170 0.946881 140 86 75
9.608580 1.307280 2.386260 140 86 75
9.822390 1.531990 2.353260 140 86 75
9.833160 1.543820 2.351170 140 86 75
9.854670 1.566870 2.346780 140 86 75
10.029500 1.764450 2.304260 140 86 75
10.254200 2.038960 2.227490 140 86 75
10.469000 2.330470 2.123930 140 86 75
10.514600 2.396180 2.097100 140 86 75
10.693600 2.679920 1.970440 140 86 75
10.766500 2.808670 1.906430 140 86 75
10.981800 3.268770 1.646870 140 86 75
10.997300 3.309520 1.621630 140 86 75
11.117200 3.720140 1.352280 140 86 75
11.138900 3.837130 1.270720 140 86 75
11.152500 3.933220 1.202150 140 86 75
11.166600 4.113300 1.071200 140 86 75
11.165500 4.297810 0.933285 140 86 75
10.828000 5.283660 0.182205 140 86 75
10.802000 5.320020 0.155336 140 86 75
8.081960 -0.095103 2.318400 140 86 75
8.906410 0.534412 2.416610 140 86 75
9.559920 1.124100 2.408670 140 86 75
11.219400 4.063210 1.023070 140 86 75
11.219200 4.118230 0.981578 140 86 75
11.170900 4.516450 0.675241 140 86 75
11.170900 4.516450 0.675241 140 86 75
8.742250 0.283854 2.417820 140 86 75
8.803480 0.332211 2.422900 140 86 75
8.833730 0.356621 2.425220 140 86 75
8.893600 0.404851 2.429290 140 86 75
8.952510 0.453538 2.432760 140 86 75
9.081930 0.561638 2.437990 140 86 75
9.151920 0.621533 2.439460 140 86 75
9.274590 0.728834 2.439510 140 86 75
9.287950 0.740830 2.439330 140 86 75
9.301250 0.752837 2.439110 140 86 75
10.092200 1.543860 2.332710 140 86 75
10.774600 3.011200 2.603470 140 86 75
10.531600 2.088940 2.155910 140 86 75
10.539400 2.099940 2.151560 140 86 75
10.547300 2.110940 2.147170 140 86 75
10.555000 2.121950 2.142770 140 86 75
10.600900 2.187100 2.115640 140 86 75
10.615900 2.208340 2.106280 140 86 75
10.623300 2.219250 2.101630 140 86 75
10.623300 2.219250 2.101630 140 86 75
10.630700 2.230160 2.096960 140 86 75
10.630700 2.230160 2.096960 140 86 75
10.674000 2.294780 2.068190 140 86 75
10.895700 5.095030 0.135400 140 86 75
10.879600 5.115990 0.119617 140 86 75
10.857600 5.143910 0.098891 140 86 75
10.851900 5.151010 0.093784 140 86 75
10.744400 5.273720 0.005397 140 86 75
10.731700 5.287210 -0.003957 140 86 75
10.712600 5.306620 -0.017870 140 86 75
10.699500 5.319910 -0.026968 140 86 75
10.693200 5.325870 -0.031566 140 86 75
10.686600 5.332470 -0.036060 140 86 75
10.673100 5.345610 -0.044985 140 86 75
10.639400 5.377440 -0.066932 140 86 75
10.394500 5.575390 -0.196231 140 86 75
9.385270 0.703154 2.452540 140 86 75
9.385270 0.703154 2.452540 140 86 75
9.398360 0.715004 2.452100 140 86 75
9.424400 0.738656 2.451090 140 86 75
9.733510 1.029150 2.424850 140 86 75
9.791710 1.086690 2.416730 140 86 75
10.704500 2.008980 2.120690 140 86 75
10.719300 2.030410 2.111170 140 86 75
10.877700 2.271820 1.993770 140 86 75
11.352600 3.517710 1.178780 140 86 75
11.366600 3.717490 1.024560 140 86 75
11.364500 3.851160 0.919865 140 86 75
11.121900 4.667000 0.270308 140 86 75
10.618100 5.239500 -0.145783 140 86 75
10.553500 1.653500 2.234890 140 86 75
10.612000 1.728490 2.205380 140 86 75
11.192200 2.682630 1.696400 140 86 75
11.292500 2.945800 1.519050 140 86 75
11.345000 3.126140 1.389420 140 86 75
9.489830 0.428494 2.492700 140 86 75
10.649900 1.627870 2.212320 140 86 75
10.835200 1.878860 2.099200 140 86 75
10.891400 1.961850 2.058220 140 86 75
11.323500 2.806480 1.541690 140 86 75
11.388500 3.023840 1.384460 140 86 75
11.417400 3.153320 1.286780 140 86 75
11.425700 3.199150 1.251680 140 86 75
11.427200 3.208420 1.244680 140 86 75
11.427200 3.208420 1.244680 140 86 75
11.431500 3.236170 1.223650 140 86 75
11.431500 3.236170 1.223650 140 86 75
11.435600 3.263150 1.202460 140 86 75
11.436800 3.272350 1.195430 140 86 75
11.438000 3.281550 1.188410 140 86 75
11.439300 3.290060 1.181260 140 86 75
11.440400 3.299220 1.174220 140 86 75
11.441400 3.308380 1.167190 140 86 75
11.442400 3.317530 1.160150 140 86 75
11.443400 3.326670 1.153110 140 86 75
11.447800 3.371540 1.117810 140 86 75
11.448500 3.380620 1.110770 140 86 75
11.454900 3.504590 1.011910 140 86 75
11.455000 3.513510 1.004890 140 86 75
11.428600 3.848030 0.733625 140 86 75
11.428600 3.848030 0.733625 140 86 75
11.419100 3.897980 0.692838 140 86 75
11.280900 4.303720 0.363118 140 86 75
11.277200 4.311440 0.357052 140 86 75
11.092100 4.609970 0.122999 140 86 75
8.750420 -0.265970 2.479790 140 86 75
8.877120 -0.175086 2.490830 140 86 75
8.877120 -0.175086 2.490830 140 86 75
8.877120 -0.175086 2.490830 140 86 75
9.030330 -0.060758 2.500970 140 86 75
9.278190 0.132331 2.508600 140 86 75
9.278190 0.132331 2.508600 140 86 75
9.403230 0.233937 2.507830 140 86 75
9.403230 0.233937 2.507830 140 86 75
11.295600 2.521520 1.663280 140 86 75
11.303600 2.541030 1.650220 140 86 75
9.557250 0.239380 2.514240 140 86 75
10.644900 1.323800 2.262560 140 86 75
10.745500 1.449200 2.210120 140 86 75
11.444500 3.865020 0.517945 140 86 75
11.441800 3.873000 0.511476 140 86 75
11.233300 4.285430 0.179139 140 86 75
10.159500 5.135010 -0.372324 140 86 75
10.139200 5.144330 -0.376188 140 86 75
10.139200 5.144330 -0.376188 140 86 75
10.119200 5.152920 -0.379976 140 86 75
10.078300 5.170480 -0.387201 140 86 75
9.962370 5.218230 -0.404864 140 86 75
9.729580 5.300900 -0.429978 140 86 75
11.579700 2.745430 1.238610 140 86 75
11.608600 3.024870 1.010250 140 86 75
11.607900 3.144370 0.910980 140 86 75
11.605200 3.194850 0.868685 140 86 75
11.513100 3.638720 0.495118 140 86 75
11.616700 2.350230 1.359460 140 86 75
11.618900 2.359270 1.352390 140 86 75
11.667700 2.623190 1.137650 140 86 75
11.680000 2.853100 0.944177 140 86 75
11.152400 1.209470 2.069890 140 86 75
11.280900 1.403350 1.953950 140 86 75
11.601900 2.066670 1.487090 140 86 75
11.712900 2.643410 1.014670 140 86 75
11.508900 1.458260 1.763390 140 86 75
11.775700 2.366890 1.034640 140 86 75
11.778000 2.499430 0.919338 140 86 75
11.750800 2.761270 0.575504 140 86 75
11.681500 2.957510 0.404962 140 86 75
11.675100 2.972580 0.392307 140 86 75
11.671700 2.980110 0.386007 140 86 75
11.665200 2.994400 0.373345 140 86 75
11.661800 3.001890 0.367093 140 86 75
11.654800 3.016820 0.354641 140 86 75
11.640500 3.045870 0.329841 140 86 75
11.274100 3.682240 0.653628 140 86 75
11.602100 3.118050 0.269139 140 86 75
11.598000 3.125350 0.263203 140 86 75
11.585700 3.146460 0.245359 140 86 75
11.523100 3.245530 0.164776 140 86 75
11.508800 3.266050 0.147962 140 86 75
11.431700 3.369190 0.067105 140 86 75
11.363800 3.449440 0.005984 140 86 75
11.352100 3.462150 -0.003930 140 86 75
11.321900 3.494810 -0.028203 140 86 75
11.321900 3.494810 -0.028203 140 86 75
11.127800 3.678330 -0.156830 140 86 75
11.105800 3.697040 -0.168887 140 86 75
11.083700 3.714920 -0.180799 140 86 75
11.076200 3.721080 -0.184700 140 86 75
11.030500 3.757070 -0.207592 140 86 75
10.983400 3.792570 -0.229538 140 86 75
11.415400 0.956520 1.948700 140 86 75
11.678000 1.459420 1.582360 140 86 75
11.704400 2.842000 0.389939 140 86 75
11.543100 3.128320 0.150857 140 86 75
11.535400 0.993049 1.842840 140 86 75
11.845100 1.836990 1.163990 140 86 75
11.804900 2.509950 0.564856 140 86 75
11.391500 3.219690 -0.024326 140 86 75
10.855500 3.544950 -0.320418 140 86 75
10.490600 -0.666636 2.544390 140 86 75
10.512800 -0.646879 2.538060 140 86 75
11.829700 0.935404 1.499960 140 86 75
11.839200 0.960898 1.478080 140 86 75
11.877900 1.080830 1.375650 140 86 75
11.880400 1.089430 1.368320 140 86 75
11.896500 1.148030 1.316600 140 86 75
11.898600 1.156580 1.309240 140 86 75
11.900700 1.165110 1.301870 140 86 75
11.902700 1.173640 1.294500 140 86 75
11.904700 1.182160 1.287120 140 86 75
11.910500 1.206960 1.264860 140 86 75
11.910500 1.206960 1.264860 140 86 75
11.917600 1.240130 1.235200 140 86 75
11.917600 1.240130 1.235200 140 86 75
11.919300 1.248590 1.227820 140 86 75
11.920900 1.257040 1.220430 140 86 75
11.920900 1.257040 1.220430 140 86 75
11.920900 1.257040 1.220430 140 86 75
11.933700 1.331250 1.153670 140 86 75
11.935000 1.339620 1.146270 140 86 75
11.936100 1.347980 1.138900 140 86 75
11.946300 1.437930 1.057500 140 86 75
11.950400 1.654330 0.859586 140 86 75
11.121500 -0.461061 2.309060 140 86 75
11.130000 -0.451542 2.303940 140 86 75
11.130000 -0.451542 2.303940 140 86 75
11.163700 -0.414207 2.283080 140 86 75
11.188500 -0.385730 2.267260 140 86 75
11.204800 -0.366785 2.256580 140 86 75
11.750400 0.423103 1.707640 140 86 75
11.832700 0.439528 1.586220 140 86 75
11.890000 0.585215 1.462070 140 86 75
8.883700 -2.368770 2.715820 140 86 75
8.900610 -2.360190 2.716970 140 86 75
8.934260 -2.342960 2.719140 140 86 75
9.179670 -2.213490 2.730040 140 86 75
9.195650 -2.204610 2.730460 140 86 75
9.195650 -2.204610 2.730460 140 86 75
9.227330 -2.187430 2.731100 140 86 75
9.227330 -2.187430 2.731100 140 86 75
9.563630 -1.990250 2.728160 140 86 75
9.984260 -1.715030 2.693410 140 86 75
8.811460 -2.759860 2.747740 140 86 75
9.380400 -2.471620 2.764210 140 86 75
9.487050 -2.411340 2.761650 140 86 75
9.736230 -2.262660 2.747400 140 86 75
10.610700 -1.635070 2.578640 140 86 75
11.269400 2.034540 -0.246039 140 86 75
11.121900 2.148980 -0.309964 140 86 75
11.121900 2.148980 -0.309964 140 86 75
11.113300 2.155380 -0.313255 140 86 75
10.866500 2.321370 -0.392325 140 86 75
10.767600 2.381130 -0.416710 140 86 75
10.767600 2.381130 -0.416710 140 86 75
10.757500 2.387200 -0.418996 140 86 75
10.675100 2.434030 -0.436414 140 86 75
10.664500 2.440020 -0.438465 140 86 75
10.632700 2.457940 -0.444464 140 86 75
10.568100 2.492810 -0.455800 140 86 75
10.501900 2.527320 -0.466213 140 86 75
10.422900 2.566600 -0.477234 140 86 75
10.411400 2.572370 -0.478701 140 86 75
10.388200 2.583880 -0.481559 140 86 75
10.365100 2.594670 -0.484342 140 86 75
9.190250 3.036560 -0.518419 140 86 75
11.116000 -1.306590 2.360580 140 86 75
11.730600 -0.525353 1.820590 140 86 75
11.914300 -0.155447 1.508760 140 86 75
11.927400 -0.121118 1.479030 140 86 75
11.951500 -0.054316 1.419030 140 86 75
11.980200 0.037342 1.336190 140 86 75
11.993800 0.087046 1.290870 140 86 75
12.047200 0.537799 0.869773 140 86 75
12.046300 0.561707 0.847706 140 86 75
11.564300 1.627270 -0.072928 140 86 75
11.564300 1.627270 -0.072928 140 86 75
11.957100 -0.191697 1.418080 140 86 75
11.959900 -0.183198 1.410570 140 86 75
11.962700 -0.175468 1.402900 140 86 75
9.987890 2.512430 -0.523028 140 86 75
11.957800 -0.337341 1.424830 140 86 75
11.884100 -0.660328 1.589290 140 86 75
12.017200 -0.276665 1.241190 140 86 75
12.029500 -0.219377 1.187800 140 86 75
12.038500 -0.170662 1.142040 140 86 75
12.039800 -0.163203 1.134320 140 86 75
12.041100 -0.154976 1.126720 140 86 75
12.043600 -0.138570 1.111550 140 86 75
10.518600 -2.609580 2.634450 140 86 75
10.576000 -2.565710 2.615040 140 86 75
11.213500 -1.996610 2.300000 140 86 75
11.520300 -1.641270 2.050260 140 86 75
11.676500 -1.421740 1.878630 140 86 75
12.034600 -0.105300 0.678345 140 86 75
12.024000 -0.043380 0.620907 140 86 75
12.016100 -0.005186 0.585376 140 86 75
11.992700 0.086218 0.501554 140 86 75
11.981300 0.123921 0.467241 140 86 75
11.949500 0.214109 0.386561 140 86 75
11.801500 0.508605 0.136614 140 86 75
11.681600 0.680552 0.002649 140 86 75
11.563900 0.822463 -0.098604 140 86 75
11.557600 0.829622 -0.103399 140 86 75
11.557600 0.829622 -0.103399 140 86 75
11.551300 0.836765 -0.108169 140 86 75
9.468850 -3.763760 2.846180 140 86 75
10.237500 -3.318350 2.711740 140 86 75
11.185400 -2.536790 2.280140 140 86 75
10.853700 0.869615 -0.424410 140 86 75
11.752300 -1.905420 1.667350 140 86 75
11.816400 -1.776520 1.553740 140 86 75
11.987700 -1.160790 0.982231 140 86 75
11.621000 -2.242660 1.829360 140 86 75
11.948200 -1.470420 1.133310 140 86 75
11.960600 -1.396720 1.063560 140 86 75
11.966000 -1.355890 1.024960 140 86 75
11.976900 -1.193140 0.872109 140 86 75
11.944000 -0.859579 0.562768 140 86 75
11.942300 -0.851593 0.555681 140 86 75
11.874900 -0.626023 0.356464 140 86 75
11.859700 -0.587609 0.323536 140 86 75
11.804200 -0.465236 0.221358 140 86 75
11.784700 -0.427253 0.190459 140 86 75
11.916200 -1.195370 0.597874 140 86 75
11.913300 -1.179190 0.583532 140 86 75
11.299900 -3.019330 2.096950 140 86 75
11.503500 -2.756620 1.885180 140 86 75
11.509600 -2.747750 1.877910 140 86 75
11.562300 -2.669640 1.811610 140 86 75
11.675600 -2.479030 1.645870 140 86 75
11.798200 -2.213050 1.406090 140 86 75
11.891200 -1.885200 1.100880 140 86 75
11.891200 -1.885200 1.100880 140 86 75
11.909000 -1.761330 0.984343 140 86 75
11.911400 -1.736210 0.961256 140 86 75
11.912700 -1.720290 0.945760 140 86 75
11.913300 -1.711930 0.938091 140 86 75
11.913900 -1.703580 0.930432 140 86 75
11.634300 -2.653240 1.667130 140 86 75
11.643900 -2.635670 1.651890 140 86 75
11.261600 -3.395700 2.040790 140 86 75
11.290500 -3.360170 2.012600 140 86 75
11.464900 -3.124220 1.815410 140 86 75
11.837800 -2.091320 0.874064 140 86 75
11.838500 -2.074450 0.858781 140 86 75
11.835800 -1.917380 0.715079 140 86 75
10.813400 -0.270456 -0.363719 140 86 75
11.263800 -3.952180 1.729800 140 86 75
11.602900 -3.029840 0.923098 140 86 75
11.608400 -2.951740 0.855259 140 86 75
10.792700 -1.380150 -0.306618 140 86 75
11.512000 -3.291890 0.883601 140 86 75
11.513900 -3.265460 0.860967 140 86 75
11.515900 -3.230260 0.830908 140 86 75
11.519300 -2.825040 1.154170 140 86 75
11.517400 -3.124810 0.741673 140 86 75
11.208900 -2.119880 -0.001755 140 86 75
11.059800 -1.891380 -0.132147 140 86 75
11.059800 -1.891380 -0.132147 140 86 75
11.047100 -1.873730 -0.141502 140 86 75
11.040700 -1.864900 -0.146140 140 86 75
10.925300 -1.714390 -0.221206 140 86 75
11.444500 -3.582780 1.000920 140 86 75
11.452700 -3.529460 0.954926 140 86 75
11.461000 -3.458440 0.894004 140 86 75
11.461800 -3.449550 0.886426 140 86 75
11.467600 -3.228140 0.700011 140 86 75
11.387300 -2.760690 0.331792 140 86 75
11.335300 -2.610900 0.223766 140 86 75
11.331800 -2.602070 0.217589 140 86 75
11.310200 -2.549180 0.180941 140 86 75
10.904400 -4.759780 1.882410 140 86 75
11.092000 -4.493600 1.656900 140 86 75
11.103100 -4.475750 1.641590 140 86 75
11.119200 -4.448960 1.618560 140 86 75
11.174700 -4.350600 1.533640 140 86 75
11.300500 -4.072750 1.291910 140 86 75
11.331300 -3.983080 1.213740 140 86 75
11.395900 -3.714350 0.981009 140 86 75
11.403700 -3.660700 0.935033 140 86 75
11.403700 -3.660700 0.935033 140 86 75
11.406000 -3.642820 0.919764 140 86 75
11.430700 -3.282780 1.249530 140 86 75
11.412400 -3.580280 0.866578 140 86 75
11.412400 -3.580280 0.866578 140 86 75
11.417700 -3.491010 0.791354 140 86 75
11.417800 -3.375100 0.695104 140 86 75
11.417800 -3.375100 0.695104 140 86 75
11.417500 -3.366200 0.687779 140 86 75
11.412600 -3.286040 0.622426 140 86 75
11.163400 -4.412290 1.452470 140 86 75
11.267500 -4.160180 1.233250 140 86 75
11.325300 -3.952960 1.053880 140 86 75
11.032100 -4.697460 1.566130 140 86 75
11.062200 -4.643470 1.519460 140 86 75
11.062200 -4.643470 1.519460 140 86 75
11.067100 -4.634470 1.511660 140 86 75
11.067100 -4.634470 1.511660 140 86 75
11.076700 -4.616440 1.496060 140 86 75
11.086100 -4.598410 1.480440 140 86 75
11.086100 -4.598410 1.480440 140 86 75
11.095300 -4.580390 1.464820 140 86 75
11.203900 -4.327280 1.245170 140 86 75
11.284200 -4.028350 0.987870 140 86 75
11.289000 -4.001180 0.964742 140 86 75
11.289000 -4.001180 0.964742 140 86 75
11.293400 -3.974010 0.941678 140 86 75
11.298500 -3.937780 0.911029 140 86 75
11.299700 -3.928720 0.903387 140 86 75
11.301900 -3.910620 0.888123 140 86 75
11.305700 -3.874380 0.857705 140 86 75
11.305700 -3.874380 0.857705 140 86 75
11.308800 -3.838170 0.827427 140 86 75
11.309400 -3.829110 0.819881 140 86 75
11.311600 -3.792910 0.789795 140 86 75
11.313300 -3.747640 0.752421 140 86 75
11.313700 -3.720480 0.730128 140 86 75
11.142300 -2.913520 0.130127 140 86 75
11.134400 -2.895290 0.118332 140 86 75
11.101100 -2.822250 0.072020 140 86 75
10.810300 -2.333210 -0.197287 140 86 75
10.776500 -2.286480 -0.219154 140 86 75
10.713000 -2.202060 -0.256922 140 86 75
11.019200 -4.756350 1.485000 140 86 75
11.023900 -4.747300 1.477180 140 86 75
11.037900 -4.720160 1.453670 140 86 75
11.042400 -4.711090 1.445840 140 86 75
11.064500 -4.665800 1.406600 140 86 75
11.112500 -4.556860 1.312250 140 86 75
11.156700 -4.438630 1.210040 140 86 75
11.257600 -3.791310 0.666812 140 86 75
10.275500 -1.873620 -0.424510 140 86 75
10.256700 -1.853870 -0.430203 140 86 75
10.247300 -1.844000 -0.433014 140 86 75
10.199300 -1.794470 -0.446680 140 86 75
10.179800 -1.774580 -0.451970 140 86 75
10.170000 -1.764640 -0.454578 140 86 75
9.677620 -1.307800 -0.546543 140 86 75
9.604260 -1.245450 -0.555199 140 86 75
11.082900 -4.492840 1.683670 140 86 75
11.041100 -4.722190 1.324240 140 86 75
11.100300 -4.566780 1.190410 140 86 75
11.123300 -4.493500 1.127630 140 86 75
11.126000 -4.484340 1.119800 140 86 75
11.164100 -4.328400 0.987363 140 86 75
11.164100 -4.328400 0.987363 140 86 75
11.172600 -4.282490 0.948738 140 86 75
11.186300 -4.190630 0.872046 140 86 75
11.190400 -4.153870 0.841606 140 86 75
11.192200 -4.135490 0.826442 140 86 75
11.194600 -4.107910 0.803768 140 86 75
11.195900 -4.089530 0.788699 140 86 75
11.198400 -4.043560 0.751213 140 86 75
11.198700 -4.034360 0.743751 140 86 75
11.199000 -4.025160 0.736297 140 86 75
11.228100 -3.768180 1.091710 140 86 75
11.199700 -3.997560 0.714007 140 86 75
11.199700 -3.997560 0.714007 140 86 75
11.199900 -3.979160 0.699203 140 86 75
11.138800 -3.490400 0.327580 140 86 75
11.136400 -3.481150 0.321010 140 86 75
11.134000 -3.471890 0.314463 140 86 75
10.100900 -1.860450 -0.463524 140 86 75
11.068800 -4.601820 1.091910 140 86 75
11.081100 -4.555670 1.052840 140 86 75
10.237500 -4.173000 -0.152108 140 86 75
10.046800 -3.522770 0.001892 140 86 75
9.966010 -3.657210 -0.351752 140 86 75
9.959170 -3.645980 -0.355391 140 86 75
9.959170 -3.645980 -0.355391 140 86 75
9.952270 -3.634730 -0.359000 140 86 75
9.850960 -3.475920 -0.406849 140 86 75
9.576410 -3.091250 -0.499866 140 86 75
9.445900 4.031500 -1.134200 140 86 75
10.573600 2.416590 -1.718560 140 86 75
11.052400 3.178650 -2.117080 140 86 75
11.072900 3.223990 -2.133100 140 86 75
11.072900 3.223990 -2.133100 140 86 75
11.121500 3.343940 -2.168860 140 86 75
10.452100 2.069960 -1.603100 140 86 75
10.829300 2.557100 -1.902130 140 86 75
10.829300 2.557100 -1.902130 140 86 75
10.893100 2.652510 -1.954920 140 86 75
10.925200 2.702760 -1.981540 140 86 75
10.938500 2.724060 -1.992540 140 86 75
11.172900 3.184660 -2.175240 140 86 75
11.179800 3.203010 -2.179710 140 86 75
11.182100 3.209120 -2.181130 140 86 75
11.192900 3.239450 -2.187770 140 86 75
11.197100 3.251500 -2.190210 140 86 75
11.197100 3.251500 -2.190210 140 86 75
11.199100 3.257500 -2.191370 140 86 75
10.657800 2.122380 -1.741150 140 86 75
11.194200 2.957400 -2.163210 140 86 75
11.265000 3.144230 -2.204890 140 86 75
10.005600 1.252360 -1.274490 140 86 75
10.216200 1.454280 -1.408630 140 86 75
10.445000 1.689590 -1.565790 140 86 75
10.499200 1.748380 -1.604830 140 86 75
10.602000 1.863310 -1.680430 140 86 75
10.838000 2.150540 -1.861760 140 86 75
10.855000 2.172820 -1.875140 140 86 75
10.877200 2.202300 -1.892650 140 86 75
11.087100 2.510330 -2.058080 140 86 75
11.155700 2.628410 -2.110200 140 86 75
11.159200 2.634850 -2.112810 140 86 75
11.176400 2.666840 -2.125430 140 86 75
11.214800 2.742390 -2.152590 140 86 75
11.257100 2.834510 -2.180220 140 86 75
11.262200 2.846600 -2.183370 140 86 75
11.339100 3.069140 -2.218530 140 86 75
11.343500 3.086170 -2.219290 140 86 75
11.346200 3.097480 -2.219640 140 86 75
11.348900 3.108780 -2.219850 140 86 75
11.353900 3.131270 -2.219890 140 86 75
11.358500 3.153640 -2.219390 140 86 75
11.362600 3.175910 -2.218380 140 86 75
10.935100 1.682720 -1.884210 140 86 75
10.941100 1.689840 -1.888650 140 86 75
10.947000 1.696950 -1.893060 140 86 75
10.952900 1.704040 -1.897440 140 86 75
10.998800 1.760260 -1.931670 140 86 75
11.118900 1.916830 -2.020950 140 86 75
11.133300 1.936720 -2.031550 140 86 75
11.142800 1.949920 -2.038480 140 86 75
11.165900 1.982680 -2.055320 140 86 75
11.327500 2.019860 -2.151070 140 86 75
11.542000 2.531970 -2.231620 140 86 75
11.543100 2.537370 -2.231030 140 86 75
10.865500 1.237380 -1.812730 140 86 75
11.325700 1.805830 -2.136710 140 86 75
11.619800 -1.848590 -2.326490 140 86 75
11.630100 -1.834340 -2.325150 140 86 75
11.630100 -1.834340 -2.325150 140 86 75
11.821800 -1.381580 -2.149820 140 86 75
11.822500 -1.064890 -1.920720 140 86 75
9.781980 2.510200 0.000185 140 86 75
10.514200 4.344880 0.297228 140 86 75
10.513200 4.381190 0.273498 140 86 75
10.512600 4.399210 0.261589 140 86 75
10.512200 4.408180 0.255625 140 86 75
10.510200 4.443880 0.231700 140 86 75
10.507600 4.479210 0.207677 140 86 75
10.505300 4.505480 0.189600 140 86 75
10.489900 4.625460 0.104708 140 86 75
10.527300 4.250970 0.950951 140 86 75
10.611800 1.049980 -1.718470 140 86 75
10.807800 1.354170 -1.745180 140 86 75
11.019500 1.808800 -1.718560 140 86 75
11.033700 1.850020 -1.711770 140 86 75
11.041800 1.874690 -1.707350 140 86 75
11.068700 1.964730 -1.688860 140 86 75
11.045400 2.999060 -1.204030 140 86 75
11.045400 2.999060 -1.204030 140 86 75
11.016400 3.074350 -1.149880 140 86 75
11.016400 3.074350 -1.149880 140 86 75
10.754200 3.517460 -0.787969 140 86 75
10.010100 0.299595 -1.191030 140 86 75
10.264000 0.564411 -1.308770 140 86 75
11.101800 2.194500 -1.728010 140 86 75
11.111100 2.304340 -1.722560 140 86 75
11.112200 2.327680 -1.720640 140 86 75
11.100500 2.610360 -1.675220 140 86 75
11.077700 2.744420 -1.638650 140 86 75
11.072800 2.766550 -1.631650 140 86 75
11.072800 2.766550 -1.631650 140 86 75
11.071100 2.773920 -1.629260 140 86 75
11.069400 2.781270 -1.626850 140 86 75
11.009100 2.977390 -1.550980 140 86 75
10.998000 3.006050 -1.538040 140 86 75
10.933400 3.147730 -1.467050 140 86 75
10.879400 3.245400 -1.411340 140 86 75
10.779300 3.396340 -1.314430 140 86 75
10.624100 3.583960 -1.176110 140 86 75
10.617900 3.590570 -1.170880 140 86 75
10.500300 3.708320 -1.073880 140 86 75
10.479300 3.727730 -1.057190 140 86 75
10.205200 3.949290 -0.853229 140 86 75
9.935100 4.125330 -0.674393 140 86 75
10.315900 0.518512 -0.820452 140 86 75
10.673300 0.983215 -1.060790 140 86 75
10.691500 1.010990 -1.075000 140 86 75
10.802600 1.194060 -1.167420 140 86 75
10.842200 1.266270 -1.203090 140 86 75
10.842200 1.266270 -1.203090 140 86 75
10.860900 1.302170 -1.220600 140 86 75
10.860900 1.302170 -1.220600 140 86 75
10.865500 1.311120 -1.224940 140 86 75
10.977000 1.558030 -1.340330 140 86 75
11.107400 2.030330 -1.526640 140 86 75
11.129600 2.279410 -1.598670 140 86 75
11.127800 2.404540 -1.626050 140 86 75
11.089700 2.685020 -1.662170 140 86 75
11.065300 2.780630 -1.665550 140 86 75
10.123400 3.944130 -1.233200 140 86 75
10.088300 3.966770 -1.214730 140 86 75
10.088300 3.966770 -1.214730 140 86 75
10.070500 3.978030 -1.205390 140 86 75
10.654500 0.814770 -0.425113 140 86 75
10.380500 0.181424 0.979565 140 86 75
10.887400 0.896444 0.702219 140 86 75
10.916600 0.947983 0.677750 140 86 75
10.916600 0.947983 0.677750 140 86 75
11.262500 1.908930 0.123384 140 86 75
11.270000 2.423410 0.389126 140 86 75
11.060500 1.009100 1.619500 140 86 75
11.181400 1.165300 2.120870 140 86 75
10.584000 -1.177480 -0.298383 140 86 75
10.732200 2.218950 1.200450 140 86 75
10.714800 2.236910 1.212250 140 86 75
10.697200 2.254850 1.223960 140 86 75
10.643200 2.308510 1.258550 140 86 75
10.634100 2.317430 1.264240 140 86 75
10.315000 2.598760 1.433330 140 86 75
10.205100 2.684730 1.480750 140 86 75
10.193800 2.693270 1.485340 140 86 75
10.159700 2.718820 1.498950 140 86 75
10.030900 2.811560 1.546670 140 86 75
10.018900 2.819920 1.550840 140 86 75
10.018900 2.819920 1.550840 140 86 75
10.632900 -1.193560 -1.583200 140 86 75
10.641400 -1.185450 -1.581460 140 86 75
10.666400 -1.161110 -1.576040 140 86 75
11.041400 -0.731655 -1.440510 140 86 75
11.047500 -0.723277 -1.437140 140 86 75
11.053600 -0.714895 -1.433740 140 86 75
11.095100 -0.656076 -1.409170 140 86 75
11.129000 -0.605500 -1.387020 140 86 75
11.145400 -0.580162 -1.375580 140 86 75
11.402200 -0.049667 -1.086500 140 86 75
11.421300 0.010934 -1.048040 140 86 75
11.440500 0.080338 -1.002770 140 86 75
11.370200 1.205840 -0.141164 140 86 75
11.370200 1.205840 -0.141164 140 86 75
11.366800 1.214700 -0.133830 140 86 75
11.356100 1.241250 -0.111810 140 86 75
11.216200 1.524390 0.123434 140 86 75
11.205800 1.542050 0.138094 140 86 75
11.195300 1.559720 0.152738 140 86 75
11.195300 1.559720 0.152738 140 86 75
11.060000 1.762490 0.319789 140 86 75
11.047000 1.780080 0.334160 140 86 75
10.432400 -1.411610 -1.650150 140 86 75
10.789600 -1.059730 -1.674580 140 86 75
10.789600 -1.059730 -1.674580 140 86 75
10.796800 -1.051620 -1.674520 140 86 75
10.796800 -1.051620 -1.674520 140 86 75
10.832200 -1.010990 -1.673790 140 86 75
10.852900 -0.986559 -1.673020 140 86 75
10.859800 -0.978408 -1.672710 140 86 75
10.880100 -0.953913 -1.671590 140 86 75
10.886700 -0.945756 -1.671160 140 86 75
10.886700 -0.945756 -1.671160 140 86 75
10.900000 -0.929401 -1.670220 140 86 75
11.302900 -0.263519 -1.537110 140 86 75
11.321800 1.197730 -0.695468 140 86 75
10.878400 -1.022230 -1.594410 140 86 75
11.190900 -0.536778 -1.662460 140 86 75
11.252700 -0.403445 -1.664480 140 86 75
11.372800 0.853116 -1.331460 140 86 75
10.811100 -1.219760 -1.222240 140 86 75
10.818100 -1.211610 -1.226310 140 86 75
10.769400 -1.403730 -0.644422 140 86 75
10.777100 -1.395440 -0.649684 140 86 75
10.933400 -1.212620 -0.764433 140 86 75
11.384000 -0.337050 -1.238320 140 86 75
11.422300 -0.150325 -1.314770 140 86 75
11.439000 -0.005859 -1.366340 140 86 75
11.431100 0.368093 -1.466210 140 86 75
11.390600 -0.558004 -0.640285 140 86 75
10.369000 1.968210 -1.210730 140 86 75
9.369100 -3.309720 1.211850 140 86 75
10.108600 -2.845530 1.607260 140 86 75
10.616000 -2.360840 1.914420 140 86 75
10.665100 -2.301350 1.945230 140 86 75
10.672000 -2.292810 1.949540 140 86 75
10.672000 -2.292810 1.949540 140 86 75
10.841900 -2.058020 2.056240 140 86 75
10.847700 -2.049170 2.059820 140 86 75
11.015200 -1.752340 2.162520 140 86 75
11.019600 -1.743190 2.165150 140 86 75
11.037000 -1.706570 2.175340 140 86 75
11.057800 -1.660600 2.187420 140 86 75
11.061800 -1.651380 2.189750 140 86 75
11.065900 -1.642170 2.192040 140 86 75
11.069800 -1.632930 2.194310 140 86 75
11.104000 -1.549550 2.213350 140 86 75
11.107500 -1.540260 2.215310 140 86 75
11.111100 -1.530960 2.217240 140 86 75
11.160200 -1.390650 2.242540 140 86 75
11.198500 -1.258570 2.259840 140 86 75
11.208200 -1.220650 2.263660 140 86 75
11.210500 -1.211170 2.264540 140 86 75
11.227700 -1.135100 2.270410 140 86 75
11.231700 -1.116030 2.271570 140 86 75
11.244300 -1.049220 2.274610 140 86 75
11.246000 -1.039650 2.274920 140 86 75
11.246000 -1.039650 2.274920 140 86 75
11.252300 -1.001390 2.275840 140 86 75
11.253700 -0.991817 2.276000 140 86 75
11.264300 -0.915107 2.276080 140 86 75
11.278300 -0.452603 2.234910 140 86 75
11.248600 -0.192354 2.181440 140 86 75
11.247000 -0.182740 2.179070 140 86 75
11.241800 -0.153886 2.171760 140 86 75
11.232600 -0.105837 2.159040 140 86 75
11.224400 -0.067445 2.148370 140 86 75
11.208800 -0.000353 2.128660 140 86 75
11.206400 0.009214 2.125740 140 86 75
11.203900 0.018789 2.122790 140 86 75
11.201400 0.028352 2.119820 140 86 75
11.198900 0.037922 2.116820 140 86 75
11.153400 0.190546 2.065380 140 86 75
11.126800 0.266509 2.037300 140 86 75
11.086000 0.370545 1.996240 140 86 75
11.082100 0.379972 1.992370 140 86 75
11.074000 0.398826 1.984570 140 86 75
11.061700 0.427068 1.972700 140 86 75
10.939000 0.669950 1.862050 140 86 75
10.917600 0.706994 1.843870 140 86 75
10.316200 1.247700 1.927190 140 86 75
10.570500 -2.857280 0.221596 140 86 75
10.604500 -2.826050 0.250972 140 86 75
10.827100 -2.594440 0.467074 140 86 75
10.891000 -2.622170 -0.123233 140 86 75
10.996400 -2.489520 -0.006639 140 86 75
11.095100 -2.346070 0.119885 140 86 75
11.121600 -2.303430 0.157510 140 86 75
11.219900 -2.122160 0.316970 140 86 75
11.313100 -1.893340 0.515935 140 86 75
11.319000 -1.875550 0.531238 140 86 75
11.343100 -1.795190 0.599998 140 86 75
11.354900 -1.750320 0.638095 140 86 75
11.385000 -1.605760 0.759244 140 86 75
11.406900 -1.413870 0.915639 140 86 75
11.410400 -1.303190 1.003170 140 86 75
11.410400 -1.303190 1.003170 140 86 75
11.410400 -1.293930 1.010390 140 86 75
11.410400 -1.284660 1.017600 140 86 75
11.364700 -0.872826 1.321000 140 86 75
11.362600 -0.863370 1.327530 140 86 75
11.351800 -0.816059 1.359910 140 86 75
10.819900 0.269367 1.937240 140 86 75
10.819900 0.269367 1.937240 140 86 75
10.708100 0.414152 1.987510 140 86 75
10.700300 0.423795 1.990620 140 86 75
10.692400 0.433434 1.993690 140 86 75
9.619420 1.423850 2.139120 140 86 75
8.746430 -3.979630 -1.423020 140 86 75
8.762110 -3.974690 -1.421860 140 86 75
8.793340 -3.964730 -1.419460 140 86 75
9.080440 -3.865070 -1.390880 140 86 75
9.095070 -3.859560 -1.389080 140 86 75
9.153120 -3.837360 -1.381600 140 86 75
9.350420 -3.756730 -1.351710 140 86 75
10.833200 -2.752430 -0.752662 140 86 75
10.919200 -2.653630 -0.679027 140 86 75
11.094500 -2.417570 -0.496747 140 86 75
11.105700 -2.400430 -0.483219 140 86 75
11.376200 -1.799810 0.006424 140 86 75
11.394100 -1.727180 0.066659 140 86 75
11.425800 -1.544100 0.218296 140 86 75
10.367700 0.744729 1.726180 140 86 75
9.165700 1.647470 1.932520 140 86 75
9.013700 1.735950 1.936140 140 86 75
11.265000 -2.125470 -0.780882 140 86 75
11.283800 -2.080630 -0.749666 140 86 75
11.290900 -2.062660 -0.737051 140 86 75
11.308100 -2.017580 -0.705218 140 86 75
11.311400 -2.008540 -0.698800 140 86 75
11.321100 -1.981370 -0.679448 140 86 75
11.321100 -1.981370 -0.679448 140 86 75
11.321100 -1.981370 -0.679448 140 86 75
11.370700 -1.817210 -0.560358 140 86 75
11.375300 -1.798840 -0.546834 140 86 75
11.395700 -1.706680 -0.478407 140 86 75
11.399200 -1.688180 -0.464571 140 86 75
11.401000 -1.678920 -0.457635 140 86 75
11.430700 -1.257400 -0.135524 140 86 75
9.540240 -3.816580 -1.565790 140 86 75
10.326000 -3.333820 -1.592610 140 86 75
10.326000 -3.333820 -1.592610 140 86 75
10.518000 -3.171550 -1.571450 140 86 75
10.638200 -3.056560 -1.549020 140 86 75
10.661300 -3.033140 -1.543750 140 86 75
10.668800 -3.025320 -1.541940 140 86 75
10.668800 -3.025320 -1.541940 140 86 75
10.771100 -2.914180 -1.513500 140 86 75
10.778100 -2.906140 -1.511250 140 86 75
10.778100 -2.906140 -1.511250 140 86 75
10.859300 -2.808580 -1.482030 140 86 75
10.865800 -2.800360 -1.479410 140 86 75
10.872300 -2.792140 -1.476760 140 86 75
10.872300 -2.792140 -1.476760 140 86 75
10.916600 -2.734180 -1.457410 140 86 75
10.928800 -2.717500 -1.451620 140 86 75
10.928800 -2.717500 -1.451620 140 86 75
10.705900 -3.307240 -1.037230 140 86 75
10.712400 -3.299790 -1.041560 140 86 75
11.153000 -2.522440 -1.369290 140 86 75
9.926030 -4.216550 1.205820 140 86 75
10.861000 -0.897080 -0.804452 140 86 75
9.650940 -4.422460 1.724340 140 86 75
9.662170 -4.416620 1.722780 140 86 75
9.662170 -4.416620 1.722780 140 86 75
9.750690 -4.369220 1.709200 140 86 75
9.750690 -4.369220 1.709200 140 86 75
9.750690 -4.369220 1.709200 140 86 75
9.761570 -4.363210 1.707370 140 86 75
9.772420 -4.357170 1.705510 140 86 75
9.783230 -4.351120 1.703620 140 86 75
9.794010 -4.345050 1.701700 140 86 75
9.794010 -4.345050 1.701700 140 86 75
9.930450 -4.264450 1.674060 140 86 75
9.930450 -4.264450 1.674060 140 86 75
10.351500 -3.962760 1.541460 140 86 75
11.190000 -1.918670 0.219422 140 86 75
11.186400 -1.899400 0.207329 140 86 75
9.208790 -4.801830 1.702070 140 86 75
9.231180 -4.792360 1.713100 140 86 75
9.536740 -4.646760 1.864820 140 86 75
9.944020 -4.391890 2.064430 140 86 75
9.960340 -4.379780 2.072150 140 86 75
9.968450 -4.373720 2.075980 140 86 75
9.992540 -4.355400 2.087290 140 86 75
9.992540 -4.355400 2.087290 140 86 75
10.000500 -4.349260 2.091000 140 86 75
10.579800 -3.727910 2.309030 140 86 75
10.661900 -3.591090 2.322150 140 86 75
10.670300 -3.575620 2.322970 140 86 75
10.670300 -3.575620 2.322970 140 86 75
10.788100 -3.321100 2.318970 140 86 75
10.852000 -3.130270 2.296330 140 86 75
10.861300 -3.096440 2.290730 140 86 75
10.929800 -2.685460 2.189760 140 86 75
10.933000 -2.631300 2.172400 140 86 75
10.858800 -1.925450 1.881630 140 86 75
10.848600 -1.886430 1.862780 140 86 75
10.397700 -0.926024 1.352160 140 86 75
10.397700 -0.926024 1.352160 140 86 75
10.317700 -0.811136 1.288420 140 86 75
10.121000 -0.558255 1.148870 140 86 75
9.322160 0.225659 0.740237 140 86 75
9.295670 0.247348 0.729754 140 86 75
9.070170 -4.949250 1.164710 140 86 75
9.082290 -4.944620 1.171530 140 86 75
9.506700 -4.754870 1.425930 140 86 75
10.043800 -4.407160 1.793070 140 86 75
10.223500 -4.246910 1.927180 140 86 75
10.407600 -4.043610 2.069410 140 86 75
10.477100 -3.951890 2.124020 140 86 75
10.521800 -3.887160 2.159170 140 86 75
10.526500 -3.879900 2.162940 140 86 75
10.531300 -3.872650 2.166680 140 86 75
10.531300 -3.872650 2.166680 140 86 75
10.540700 -3.858060 2.174080 140 86 75
10.581200 -3.791880 2.205980 140 86 75
10.589900 -3.777030 2.212750 140 86 75
10.594100 -3.769590 2.216100 140 86 75
10.689700 -3.579610 2.290140 140 86 75
10.706300 -3.540710 2.302700 140 86 75
10.706300 -3.540710 2.302700 140 86 75
10.712800 -3.525070 2.307510 140 86 75
10.809600 -3.218910 2.375230 140 86 75
10.811500 -3.210640 2.376390 140 86 75
10.846500 -3.017030 2.394450 140 86 75
10.783200 -2.072190 2.271310 140 86 75
10.770500 -2.024160 2.257490 140 86 75
10.751100 -1.956550 2.237050 140 86 75
10.745200 -1.937150 2.230980 140 86 75
10.642300 -1.652260 2.131930 140 86 75
10.775800 -3.499310 2.094120 140 86 75
10.859100 -2.983670 2.308230 140 86 75
10.860100 -2.940430 2.320460 140 86 75
9.974380 -4.818070 -0.057015 140 86 75
10.905100 -3.567490 1.117390 140 86 75
10.822100 -2.312000 0.288707 140 86 75
9.754790 -5.464790 -1.432100 140 86 75
9.858450 -5.379010 -1.453700 140 86 75
9.881600 -5.358570 -1.458080 140 86 75
9.889260 -5.351730 -1.459480 140 86 75
9.904480 -5.337920 -1.462220 140 86 75
9.971380 -5.274560 -1.473230 140 86 75
9.993120 -5.252980 -1.476430 140 86 75
10.014600 -5.231170 -1.479380 140 86 75
10.035700 -5.209110 -1.482090 140 86 75
10.403900 -4.712480 -1.482920 140 86 75
10.413900 -4.694690 -1.481160 140 86 75
10.603800 -4.270740 -1.411540 140 86 75
10.620600 -4.220990 -1.400310 140 86 75
10.354300 -4.856070 -1.385320 140 86 75
10.457100 -4.634970 -1.413340 140 86 75
10.464400 -4.616650 -1.414840 140 86 75
9.941200 -5.525640 -0.762291 140 86 75
10.337900 -4.973200 -1.074600 140 86 75
10.357900 -4.931430 -1.091840 140 86 75
10.481800 -4.595600 -1.203670 140 86 75
10.570600 -3.572990 -1.316890 140 86 75
10.545100 -3.342140 -1.306830 140 86 75
10.402600 -2.709050 -1.230740 140 86 75
